# .PCD v0.7 - Point Cloud Data file format
VERSION 0.7
FIELDS x y z intensity
SIZE 4 4 4 4
TYPE F F F F
COUNT 1 1 1 1
WIDTH 1220
HEIGHT 1
VIEWPOINT 0 0 0 1 0 0 0
POINTS 1220
DATA ascii
6.6899295 1.7457037 -2.2443981 5
-7.3486738 2.2048678 -2.205569 7.0525002
-7.1623478 2.249306 -2.1790109 7
-6.272068 2.1009884 -2.1758299 8
-1.6028192 2.0905201 -2.1686912 0
6.7287617 2.1033223 -2.2571037 3
6.94734 2.0463877 -2.3421955 5
7.3531961 2.380152 -2.3471251 7
7.8564138 2.1910462 -2.2785299 6
9.0073013 2.1402164 -2.2861116 6.5
9.2364912 2.3372855 -2.1771474 5
-7.3465905 2.5905828 -2.2045889 5.4352942
-7.1656666 2.5917583 -2.2359924 5.833333
-6.2549295 2.5356004 -2.2758551 7
8.3220606 2.5241685 -2.2965326 5
9.9982843 2.762291 -2.0347166 4
-7.3796353 2.9554987 -2.1851215 5.2638888
-7.174757 2.9850907 -2.2741568 4.625
-6.284955 2.9439006 -2.1224089 6
7.4157639 2.9656515 -2.2616863 4
-7.3670444 3.384527 -2.2125232 4.4203706
-7.1630273 3.2243016 -2.2366633 3
-6.2949162 3.3795078 -2.2102628 5
8.0482826 3.300472 -2.3144569 4.5
8.8755169 3.3744893 -2.3815155 3
9.3132515 3.2879491 -2.257432 2
-7.9359636 3.9766951 -2.0701742 0
-7.3847265 3.8319027 -2.1746004 2.9666667
-7.1742425 3.6455665 -2.2333484 1.5
-6.3063588 3.8095496 -2.2399454 4
7.9272208 3.6939847 -2.1836395 5
9.8220949 3.6799533 -2.1800842 1
-7.7936091 4.0976591 -2.3362055 0
-7.421453 4.2435389 -2.1540411 2.4230769
-7.1949086 4.0666738 -2.2147174 0
-6.3190565 4.2083764 -2.1156425 3
8.2469273 4.2234282 -2.1562281 1
-7.4508548 4.6320395 -2.1821129 2.3888888
-6.3456011 4.6406674 -2.1777554 2
-7.462966 4.923171 -2.2345283 1.6666667
-6.3581405 5.0444593 -2.0968814 1
-7.5180149 5.2959642 -2.2199252 2.1666667
-6.3497138 5.4868279 -2.2047565 0
-7.5334477 5.7150884 -2.2176955 1.5
-7.5707603 6.1456285 -2.2075005 1
-8.0915031 6.4122934 -2.3351717 0
-7.3705616 -1.6411622 -1.9302907 20.011
-6.8143191 -1.6187885 -1.7808743 19.005501
-7.217761 -1.3714691 -1.8005297 18.75425
-7.1171613 -1.2909852 -1.7491529 19.337139
-6.6536937 -1.3307117 -1.8087039 21.014126
-6.1505332 -1.3562299 -1.8468702 18.573332
-5.8490801 -1.3655775 -1.8033137 20.760502
-5.4891734 -1.2895689 -1.917347 20.344
-5.0142646 -1.2773381 -1.8397446 21.678335
-4.5805364 -1.3070458 -1.8903095 20.007
-4.2927241 -1.2442456 -1.7883066 17.669832
-3.8043594 -1.2065647 -1.8953533 18.002501
-7.2685857 -1.003526 -1.7782391 18.501352
-7.0421972 -0.9732061 -1.8133681 17.929094
-6.4163427 -0.97389889 -1.6156397 17.005501
-6.1296349 -0.9594956 -1.7951397 18.787363
-5.7966204 -1.0456245 -1.7350155 20.010448
-5.4150949 -1.169848 -1.8913585 22.767813
-4.9542613 -1.1503279 -1.8109888 23.267498
-4.5307889 -1.0579209 -1.7972714 23.51775
-4.2413611 -0.94989318 -1.83137 21.696884
-3.7765818 -1.0536226 -1.6993488 23.013084
-3.3743525 -1.0777314 -1.8453956 22.00979
-3.0048065 -0.98619306 -1.7681935 24.746584
-2.5944462 -0.95323479 -1.8012519 25.637814
-2.229589 -0.93790686 -1.8520924 23.408598
-1.7502623 -0.91231662 -1.8178936 25.606325
-1.379123 -0.98821461 -1.7793243 22.641485
-1.0149142 -1.0030799 -1.8449676 23.447071
-0.65469521 -1.0297688 -1.8839778 25.580278
-0.15545371 -1.1254963 -1.9185508 19.767832
0.23459125 -1.0942137 -1.7730978 20.08618
0.62703353 -1.0845397 -1.753307 22.983141
1.0223664 -1.0614247 -1.8206012 24.223188
1.4469092 -1.0296333 -1.8126093 26.045252
1.8114977 -1.0318562 -1.7892307 27.459583
2.2288601 -1.027325 -1.8613188 28.554976
2.5744934 -1.0332865 -1.7919239 26.61495
3.0268457 -1.0478401 -1.869117 24.689463
3.4132407 -1.0528117 -1.7989938 23.839037
3.8116858 -1.0607097 -1.8046869 22.79007
4.1369181 -1.0709554 -1.7221371 22.225126
4.5760069 -1.0689086 -1.8641258 22.586813
5.0180793 -1.0740845 -1.8369219 21.88685
5.4378567 -1.0045446 -1.8133748 20.836937
5.7817931 -0.95150465 -1.7586771 20.993139
6.0033679 -0.80080229 -1.8858643 19
-7.2897425 -0.64770865 -1.7945561 17.015278
-7.1287832 -0.63614672 -1.8028266 16.375
-6.1260662 -0.66153061 -1.7901591 17.466688
-5.9042578 -0.66549522 -1.7975338 18.159451
-4.2553148 -0.73903519 -1.653597 20.013166
-3.91225 -0.64910114 -1.902051 18.0065
-0.028278112 -0.72227484 -1.6711519 30.000626
0.20574884 -0.46596199 -1.6535408 24.980234
5.4847736 -0.55254507 -1.7332697 17.5895
5.8620706 -0.62066239 -1.8239381 18.440001
6.0386214 -0.61702651 -1.9191546 18
-7.3245592 -0.23680055 -1.8041435 15.135
-7.1362705 -0.18938619 -1.8340198 14.311111
-6.5495043 -0.29724807 -1.6227541 15.5
-6.2676353 -0.00090203434 -1.8907919 13
-0.076825723 -0.12098777 -1.6490896 18.000999
0.23877919 -0.18243904 -1.6890659 18.169191
5.5621824 -0.2385913 -1.8558326 16.0895
5.9374528 -0.24431212 -1.796333 16.472221
6.0406942 -0.18130252 -1.8619524 16.200001
-7.3161969 0.13913774 -1.7817255 14.033334
-7.1326075 0.12263265 -1.8558555 13.5
-6.4674382 0.26450142 -1.7183903 13.380952
-6.2528405 0.10382895 -1.6379604 13
0.27590293 0.20411189 -1.6977348 11.933332
5.8007946 0.043318767 -1.7129173 14.666667
6.124321 0.19476962 -1.808066 13.895
-7.3367352 0.60255527 -1.7777447 12.355556
-7.1584797 0.43783993 -1.7466204 12.5
-6.4883633 0.584512 -1.7051108 11.461538
-6.2865434 0.41305655 -1.7771807 12
-1.7861185 0.42643973 -1.8737869 14
0.15921721 0.47068739 -1.6548257 5.75
6.6468868 0.6645509 -1.895552 11.833333
-7.3439422 0.97928113 -1.8280144 10.92549
-7.1677971 0.95211357 -1.7442523 10.809525
-6.2946382 0.82534671 -1.7551003 11
5.8730159 1.1929446 -1.8395267 9
6.1667376 1.0603426 -1.8774414 11
6.5807309 0.96008885 -1.9226414 9.6428576
7.7163291 1.0640094 -1.8879666 10
-7.6716022 1.4838301 -1.6825142 11
-7.360815 1.3985178 -1.7782905 9.5333338
-7.1805201 1.3911145 -1.7471004 9.5
-6.2852826 1.2490487 -1.8564959 10
5.587316 1.2340527 -1.6402254 9
5.8765779 1.3207486 -1.7309589 10
6.2554755 1.4352044 -1.8158287 6.9000001
6.4336352 1.3454996 -1.8624445 7.3888888
6.8861036 1.4623338 -1.9110551 7
7.2348948 1.2078234 -1.8893681 9
8.2466869 1.3802309 -1.8741897 8.5
-7.3552465 1.7603295 -1.8132403 7.8769231
-7.1893816 1.7657267 -1.8136823 8.3000002
-6.3063164 1.6635789 -1.8095427 9
6.2642512 1.7504119 -1.8430382 5.5833335
6.9394379 1.7402475 -1.9049752 5.5
8.6586075 1.8045056 -1.7184262 7
8.8045015 1.9921653 -1.7919531 6
-7.3718638 2.1799858 -1.8118535 7.166667
-7.1897502 2.0468528 -1.8161588 7
-6.3130102 2.0810087 -1.9291162 8
7.238163 2.3863099 -1.7109094 2
8.1541672 2.2733157 -1.9232546 4
9.0436134 2.1134799 -1.6171376 6
-7.6479435 2.6146104 -1.6233959 9
-7.369359 2.5983272 -1.8199165 5.4554167
-7.1941185 2.4634588 -1.8344417 5.5
-6.3107491 2.5025153 -1.946167 7
-1.8903732 2.4349337 -1.9982142 0
7.8322301 2.5060303 -1.845633 5
8.1335335 2.4713891 -1.918269 3
8.4797907 2.5582078 -1.7273861 3
-7.4106722 2.9579604 -1.812281 5.2888889
-7.1944861 2.8736129 -1.8165278 4
-6.3422508 2.8958015 -1.7255392 6
7.8991089 2.9575202 -1.823782 5
8.3650084 3.0928791 -1.7262893 3
-7.3917947 3.3651977 -1.8506789 4.1242561
-6.3584599 3.3172932 -1.768682 5
8.3274841 3.5478568 -1.6260138 6
8.4128475 3.4683573 -1.8471289 2
8.882741 3.3599873 -1.7887703 2.3333333
9.6314859 3.4691663 -1.8381379 1
-7.9322557 3.8903928 -1.6869049 0
-7.4417381 3.8049667 -1.7803749 3.5104167
-6.3444405 3.7594757 -1.9335632 4
7.7180223 3.7290578 -1.6292028 5
-7.6762705 4.1688766 -1.694876 3
-7.449429 4.2159748 -1.7828246 2.9759259
-7.1748848 4.3270836 -1.9465237 0
-6.3690414 4.1697426 -1.8874722 3
-7.5211649 4.5792942 -1.7808334 1.6481481
-6.3514118 4.5970397 -1.9759331 2
-7.8646092 4.9626307 -1.7832999 0
-7.4331427 4.8515358 -1.8226807 2.25
9.179987 4.8114953 -1.8799515 1
11.848236 4.9720745 -1.6909504 2
-7.6109838 5.3930693 -1.6598325 1
-7.5439281 5.2585158 -1.8892059 3
-6.4509487 5.3598485 -1.651166 0
-7.5522895 5.7970963 -1.807099 1.3333334
-7.6133647 6.0057535 -1.6622038 1
-7.5884447 6.1762099 -1.8327007 1
-5.7927704 -1.6699152 -1.2637317 21.00975
-7.2492657 -1.2399504 -1.5086453 21.5
-7.0607367 -1.3006787 -1.3911281 20.900389
-6.6203299 -1.3283322 -1.2383757 20.51425
-6.1995792 -1.2800872 -1.429829 20.21175
-5.7143154 -1.3421196 -1.3599694 22.6161
-5.431098 -1.3454816 -1.4434487 23.11125
-5.0500674 -1.272905 -1.4087511 24.268625
-7.2913065 -1.0108538 -1.4333037 18.323044
-7.1546016 -0.99179894 -1.4358793 18.571428
-6.559866 -0.87570411 -1.3833306 19.01
-6.1753731 -0.94803846 -1.492733 19.211973
-5.9261422 -1.0700524 -1.4885013 18.754749
-5.4806175 -1.0905814 -1.253325 21.011499
-4.8059545 -1.1970772 -1.4030958 24.0175
-4.5559611 -1.1700189 -1.4403734 22.346664
-4.240025 -1.0933907 -1.3848038 23.348866
-3.8396001 -1.0357995 -1.4080722 22.136814
-3.3863406 -1.034512 -1.3975737 23.154465
-3.0086532 -1.0282966 -1.4502879 22.981243
-2.578156 -1.0119725 -1.4590999 22.731285
-2.2239141 -0.96338749 -1.3879454 23.633095
-1.831826 -0.89020181 -1.3500918 22.845024
-1.366248 -1.0491154 -1.3938383 22.814531
-1.0346217 -1.0596367 -1.4063103 24.546293
-0.65176135 -1.0630423 -1.3897525 24.387785
-0.15147728 -1.0664098 -1.5083283 23.300625
0.26878807 -1.0935758 -1.397611 23.101084
0.6362536 -1.0606147 -1.3583875 24.765749
1.0137432 -1.0711614 -1.4351808 24.456833
1.4136118 -1.063522 -1.3860874 23.807867
1.8312886 -1.0573921 -1.416832 25.61413
2.2041392 -1.0275972 -1.4076231 27.953671
2.5757194 -1.0508647 -1.3794223 24.977907
2.9993422 -1.0672799 -1.3880011 24.0166
3.3985062 -1.0688125 -1.3416001 24.439438
3.7228041 -1.0581301 -1.4127144 25.639999
4.2121625 -1.0639011 -1.3658934 23.918665
4.5954475 -1.0825762 -1.5083541 22.563562
4.940845 -1.0642195 -1.3264724 22.085958
5.3888583 -1.0390189 -1.4484005 21.501644
5.7826066 -0.91593933 -1.3948374 20.914286
-7.3225064 -0.66211915 -1.4054595 17.192591
-7.1548519 -0.59521544 -1.3421066 15.95
-6.4901209 -0.58964175 -1.5448179 17.21607
-6.2495699 -0.65525776 -1.504274 17.26
-3.7323804 -0.58716488 -1.3004688 20.516001
-1.7716204 -0.62683117 -1.3334534 22.819847
-1.577721 -0.7936812 -1.3778628 31.014
-0.1057173 -0.48670286 -1.4151322 25.139111
0.07928247 -0.51934415 -1.2868195 26.724152
0.72659737 -0.49992585 -1.2614572 29.514782
0.94989789 -0.53318566 -1.315613 27.762966
5.3707132 -0.52841985 -1.2784905 17.5
5.8348393 -0.63017976 -1.4193355 18.637337
-7.3368554 -0.22282018 -1.4241526 15.275439
-7.1878214 -0.39584225 -1.4133954 16
-6.5169497 -0.19796745 -1.5359846 15.5507
-6.3588181 -0.37016654 -1.5336556 16
-1.7983395 -0.2019819 -1.3317811 17.403799
-0.19192822 -0.22010009 -1.3485346 19.742857
0.15469699 -0.17255896 -1.2415364 18.672066
0.71447152 -0.24269284 -1.2728368 22.398125
0.9858672 -0.22589944 -1.2532791 21.051947
5.4283757 -0.12712294 -1.2842972 15.5
5.8292494 -0.21908431 -1.4319112 16.227358
6.0102444 -0.17370914 -1.2751493 15.75
-7.3437366 0.17116784 -1.4278474 13.96875
-7.1846519 0.10727988 -1.3252068 13
-6.5452347 0.23505723 -1.412625 13.375439
-6.3527389 0.13563953 -1.5011414 13.5
-1.7965882 0.17939955 -1.3268362 13.048649
-1.5398154 0.21173766 -1.2598801 14
-0.18591163 0.21329312 -1.3369722 11.638889
0.19674055 0.22265421 -1.2661823 11.75
0.69253808 0.11159665 -1.2695732 12.696428
1.007459 0.17020787 -1.2763877 12.563493
5.9718075 0.093476698 -1.3140051 14.541667
6.084496 0.23338877 -1.38413 13.560607
-7.3638992 0.56780231 -1.3874112 12.445098
-7.191009 0.45933539 -1.3304329 12
-6.5483727 0.5741601 -1.4056875 11.722221
-6.3628902 0.52752042 -1.4327078 12
-1.8044952 0.56924373 -1.3319609 9.0760193
-0.082511157 0.49192068 -1.2083017 7
0.87967539 0.5628072 -1.260849 2.8399999
6.7276025 0.54302001 -1.2621365 12
-7.3550177 0.96817523 -1.407073 10.912698
-1.8148843 0.96838439 -1.3316245 6.5477009
5.8336606 1.0368339 -1.5173583 10
6.3324451 1.0785463 -1.5079708 9
6.5673943 1.0286747 -1.3666644 9.333333
7.3464799 1.0182005 -1.3074408 9.666667
-7.3501024 1.3841105 -1.4124198 9.28125
-6.3424225 1.2361444 -1.5438023 10
-1.8192407 1.3847409 -1.340314 5.9545455
5.9048324 1.2854695 -1.3846649 8.25
6.2269206 1.4409063 -1.4116895 6.75
6.5737448 1.2788076 -1.3734064 8.125
6.8445129 1.3420596 -1.4542298 9
7.3693132 1.5967755 -1.2884946 8
7.6291575 1.2061646 -1.2046618 9
-7.3890562 1.7923725 -1.3984839 8.5083332
-7.1934285 1.8987023 -1.5914955 8
-6.3460236 1.6489627 -1.5705967 9
-1.832678 1.7767388 -1.3226619 5.9035091
-0.68968511 1.7071313 -1.2959881 8
5.9668293 1.7573718 -1.5549376 7.25
6.2527227 1.8736637 -1.2994963 5.6500001
6.5180635 1.8002417 -1.3221174 7.1999998
6.809823 1.9035397 -1.4045389 5
8.5424528 1.7974228 -1.4286766 7
-7.3789101 2.1788249 -1.4118565 6.6391664
-6.3555975 2.0528193 -1.5899096 8
-2.0433276 2.1668539 -1.4142075 9
-1.8548895 2.2106698 -1.3193967 4.4642859
5.7659378 2.078898 -1.3391063 6
6.3578124 2.2044287 -1.2687168 4
9.0251818 2.0860195 -1.3731706 6
-7.383965 2.5708036 -1.4187008 5.3071427
-6.3751755 2.4623947 -1.5434866 7
-1.7481031 2.5274861 -1.288179 2.1111109
-7.4119625 2.9544199 -1.4378525 5.1666665
-7.6439948 3.5074892 -1.243948 0
-7.4306407 3.3305798 -1.406587 4.2061405
-6.4348841 3.2486844 -1.270153 5
8.6894598 3.4264622 -1.5139563 0
-7.8233728 3.8888898 -1.3712533 0
-7.4178562 3.7774756 -1.4102322 2.6777775
-6.4394765 3.67946 -1.4118729 4
8.1539965 3.7419319 -1.4760332 5
9.8769369 3.6032941 -1.2519691 1
-7.4687386 4.1808662 -1.4126327 2.1176472
-6.4386086 4.0832539 -1.3998699 3
7.8053045 4.25384 -1.5428467 0
-7.5237489 4.6337442 -1.4092355 1.6727272
-6.4384432 4.4981003 -1.4626417 2
-7.7017975 5.042448 -1.4648823 1
-7.5650806 5.0104232 -1.3923259 2.4166667
-6.449728 4.9245667 -1.5345669 1
-7.6214828 5.5272245 -1.2737541 2
-7.5355744 5.4731774 -1.4153981 1
-6.4884586 5.3054252 -1.414813 0
-7.619904 5.9059105 -1.283824 1
-7.5771179 5.7466421 -1.4212747 1
11.642973 5.604888 -1.4701805 2
-8.1339264 6.1258688 -1.3063316 0
-7.6220984 6.0559902 -1.3605614 1
-7.6456327 6.4884939 -1.2849951 0
-6.2999783 -1.6636207 -0.83963728 21.011
-7.2950125 -1.2980286 -0.97389835 22.005751
-7.0363441 -1.3106734 -1.0019101 21.016001
-6.5782948 -1.283246 -1.0240874 21.01675
-6.2007122 -1.3185925 -0.90628535 20.386217
-5.817152 -1.383611 -1.0279206 22.517931
-5.402143 -1.4171964 -1.0774233 24.936522
-4.8158717 -1.2937601 -1.0389234 25.018499
-4.7801967 -1.2933112 -1.1021042 24.015499
-0.77212739 -1.2106411 -1.1197243 19
-0.39927053 -1.2019875 -1.1375313 19
-7.3360758 -1.0013351 -0.97636324 18.42993
-7.1749969 -0.99928743 -1.0288717 18.393057
-6.6819949 -1.0110438 -0.97864962 18.63625
-6.2519984 -0.98568898 -1.0155469 17.756374
-5.9045606 -1.0347437 -0.95642537 20.794785
-4.0868201 -1.1160326 -0.87408155 25.018332
-3.7258892 -1.046172 -0.98235196 25.686167
-3.3913136 -1.0303665 -0.97188407 23.721855
-3.0360398 -1.0385572 -1.0245938 23.640408
-2.6056042 -1.0215596 -0.99308145 23.675303
-2.1363373 -0.92415738 -1.008698 26.229036
-1.8299484 -0.91186607 -1.0706956 25.776798
-1.4037095 -0.98434389 -1.0808787 23.362713
-1.0605061 -1.0283855 -1.0030332 23.503082
-0.66387963 -1.0234833 -1.0014712 27.928301
-0.15120569 -0.90405512 -1.090524 29.142084
0.1565917 -1.1144593 -1.0242739 22.049751
0.53408796 -1.0799252 -0.95870113 24.288055
0.96148884 -1.0630932 -1.0552336 24.358051
1.3538746 -1.0219215 -1.05274 28.583994
1.7131928 -1.0258534 -1.0897148 27.138363
2.1779075 -1.0398475 -0.96114469 27.094685
2.5893409 -1.0425024 -1.0676336 27.587349
3.0100074 -1.0471025 -1.0407728 24.934912
3.3791082 -1.0891591 -0.9730081 23.328838
3.8084843 -1.0850257 -1.0410522 22.917061
4.2223759 -1.0873684 -0.98320842 22.790625
4.6039696 -1.0956535 -0.96308351 22.057249
5.0345182 -1.080766 -1.0332981 23.083151
5.3495331 -1.0025996 -1.0082482 21.215681
5.6848578 -0.94111156 -1.0075575 21.270937
-7.3307633 -0.66854161 -0.99787807 17.333563
-7.1974854 -0.4740321 -0.93100357 14.666667
-6.1859617 -0.73462927 -1.0010788 17.439287
-5.9287872 -0.70239711 -0.93643719 19.625389
-1.7713567 -0.60214901 -1.1219766 20.589285
-0.12720396 -0.63677514 -1.1820235 26.583584
0.88526309 -0.57721394 -0.97937918 28.0383
5.4908133 -0.60333347 -0.97585118 18.037928
5.7998424 -0.56834966 -0.9591918 18.684525
-7.3480945 -0.22942215 -0.9960236 15.287964
-7.1865592 -0.2420833 -1.0084152 14
-6.4076033 -0.38152957 -0.82680416 14
-6.3549633 -0.3917537 -1.122139 14
-1.7157546 -0.20822471 -1.1513866 15.875
-0.5599432 -0.25770938 -0.98888969 15
-0.13941254 -0.16438226 -1.1101762 21.660795
0.15231457 -0.1260781 -1.1136069 20.966688
0.72939056 -0.18751632 -1.1939493 21.5
0.92643118 -0.19300714 -1.1710354 21.231222
5.4935703 -0.29870632 -0.99622583 16.5
5.7888694 -0.22131339 -1.0013325 16.322987
-7.3523951 0.18827316 -1.0073373 13.717778
-6.4006643 0.013843991 -0.91822529 13
-6.3626871 0.010282755 -1.1438341 13
-1.7512369 0.23500428 -1.112138 13.3
-0.18114834 0.16673525 -1.0259355 9.5832357
0.17690535 0.10437991 -1.0647863 12.197586
0.6603055 0.23088859 -1.1393617 9.144557
0.92680311 0.24908805 -1.1222538 9.0740738
5.8749399 0.15012801 -0.99771374 14.05102
6.0522327 0.19656241 -1.0896511 13.666666
-7.351635 0.57350802 -0.98317593 12.174999
-6.3965139 0.41079789 -1.1119776 12
-1.7782021 0.55482984 -1.1535686 11.2
-0.082965791 0.5603596 -1.1885951 5.75
0.73391265 0.44322982 -0.99393415 1.1666666
0.95540744 0.45919338 -0.98721868 3.1136363
6.3635168 0.77350521 -0.90154362 11
-7.3707671 0.97040826 -1.0169537 10.75294
-6.4051323 0.81195706 -1.1405687 11
-1.7374212 0.9919529 -1.1009537 9.5
5.2894998 1.0443608 -1.196167 12
5.8952041 1.1721094 -0.98334134 8.5
6.2025251 1.0511516 -0.99004591 9.8833332
6.6394949 1.0863688 -1.1506033 9
7.0022259 0.87948179 -0.98437697 10
7.3376412 1.1084589 -0.97919214 9.25
-7.3789468 1.3896912 -1.0092549 9.0592594
-6.4059105 1.2201252 -1.1564627 10
-1.743229 1.366655 -1.1159101 7.5
5.9362965 1.2717253 -1.0673481 7
6.193881 1.3981633 -0.95925522 7.125
6.9018073 1.4559565 -0.8738203 10
7.4051328 1.3152822 -0.95103735 9
-7.6912112 1.820114 -0.9478817 12
-7.3895426 1.7897269 -1.0233738 7.690351
-6.4214473 1.614265 -1.0109797 9
-1.7363223 1.740019 -1.0927831 5.5
6.2037396 1.8203264 -0.97223705 4.75
6.6847773 1.8155987 -0.82837033 5
8.1357832 1.653553 -1.0209174 7
8.4276161 1.8810731 -0.92251331 6
-7.4018655 2.1952784 -1.0350611 6.6022487
-6.4372253 2.2099159 -1.0494671 7.5
-1.7529342 2.2070777 -1.0908315 2.5185187
5.9305415 2.3112876 -0.95720673 5
6.1404972 2.2575474 -0.97003776 3.8333333
6.5862412 2.1420705 -0.9264515 3.8333333
-7.4124422 2.5888822 -1.0094184 4.5177774
-6.4307756 2.4223833 -1.1433153 7
-1.7878573 2.5130119 -1.0943842 0.40000001
-1.5683423 2.5684631 -1.0894828 1
5.5385537 2.5780549 -0.98850727 5
5.7855124 2.6400824 -1.0173886 2.5
6.0279994 2.5536985 -1.1501122 3
-7.4382858 2.9355202 -1.0231167 4.397222
-6.4640565 2.8198059 -1.0634832 6
5.7755117 2.9561508 -1.0494919 0.83333331
7.4028759 2.9412696 -0.8490448 2
7.8999438 2.9127448 -0.83994484 2
-7.6492629 3.4596391 -0.98554087 0
-7.4289598 3.326673 -0.98945379 3.819608
-6.4416046 3.2215362 -1.0883646 5
8.6501131 3.3821526 -0.81978774 0
10.731688 3.5105972 -0.81586659 2
-7.8142571 3.8267963 -0.94465846 0
-7.4768248 3.7680829 -0.95278132 2.4035716
10.679973 3.7623138 -0.8406384 1
-7.602026 4.3134317 -0.85105515 2
-7.4988642 4.1970434 -0.99551141 2.25
-6.5156336 4.0241995 -1.041173 3
10.662786 4.022377 -0.83964145 0
-7.7414694 4.643374 -0.92536247 2.2857144
-7.4628401 4.6044064 -1.0796945 1
-6.5267396 4.6066122 -0.98121119 1.5
10.231282 4.6679597 -1.0179358 3
11.962107 4.500874 -1.0661578 1
-7.6375694 5.0506225 -0.98672581 0
-6.5360069 5.0109181 -1.0048122 0.5
10.185417 5.0549932 -1.0564079 2
-7.6432815 5.3701234 -0.84894657 2
-6.52215 5.2266111 -1.0838623 0
10.204399 5.4525232 -1.0995722 1
-8.1611137 5.9995952 -0.83574963 0
-7.6424813 5.8183641 -0.9382 1
10.147705 5.8282757 -1.114851 0
-6.0667982 -1.6145438 -0.65683556 21.0105
-7.2707448 -1.3075407 -0.49271244 22.25
-6.9062743 -1.4117277 -0.77994508 23.023001
-6.5947213 -1.4413795 -0.57289338 21.347582
-6.1930437 -1.3869139 -0.58635271 22.126637
-5.871974 -1.389164 -0.65376961 23.72793
-5.4088268 -1.3982978 -0.6597569 23.01675
-4.895524 -1.2699966 -0.53707623 23.011999
-4.7555275 -1.2451943 -0.5014472 20.009001
-7.3356872 -0.9763931 -0.59143466 18.439394
-7.0802326 -0.94675887 -0.66547441 17.50625
-6.5766311 -1.1125504 -0.55782181 18.409349
-6.1806903 -1.030784 -0.62397981 20.285276
-5.8407941 -1.1058441 -0.5224824 19.612902
-3.7434981 -1.0687742 -0.63595182 25.686501
-3.3606586 -1.0226202 -0.64238161 26.770334
-2.9589136 -1.000059 -0.62399638 27.1931
-2.5373631 -0.94816077 -0.64821613 28.315424
-2.2862871 -0.94969398 -0.70404571 26.086718
-1.8430736 -0.9781605 -0.69118744 25.040375
-1.4125541 -1.0032338 -0.57262188 23.473686
-1.0132271 -1.0424542 -0.63530236 24.777588
-0.65137464 -1.0530803 -0.70529747 24.0005
-0.21542418 -0.98150092 -0.52627671 27.034168
0.14991915 -1.0352627 -0.55664116 25.156
0.56610507 -1.0447954 -0.60676181 26.193356
0.91063017 -1.0477918 -0.66939288 24.885845
1.325597 -1.0457144 -0.62171906 24.477051
1.7846593 -1.0289136 -0.60205299 26.798559
2.1935005 -1.0306423 -0.48310912 26.549416
2.611681 -1.0380027 -0.64148289 27.455786
3.0220625 -1.0436447 -0.61196721 27.539944
3.3888118 -1.0459566 -0.58932906 26.631641
3.7998548 -1.0794662 -0.6628021 23.673063
4.1674566 -1.086858 -0.61868942 22.917786
4.5444584 -1.1006416 -0.59416473 21.86005
4.9775681 -1.0810843 -0.64403218 22.297277
5.3525949 -0.95792919 -0.58930182 21.147917
5.649056 -0.89936775 -0.59387934 21.31212
-7.3619976 -0.64293462 -0.58849925 16.983646
-6.4257226 -0.77265334 -0.66118956 15
-6.1524258 -0.67371011 -0.60674477 18.007126
-0.17353983 -0.60583025 -0.4686006 24.583502
0.003071934 -0.59073049 -0.57740164 24
1.0645432 -0.59699398 -0.7393012 26.833145
5.3776679 -0.66024637 -0.67798364 18.551033
5.7364869 -0.58515495 -0.62081468 18.9
-7.3696771 -0.23655154 -0.58375812 15.407693
-6.4543734 -0.37446976 -0.62309742 14
-0.20511334 -0.17350936 -0.55422509 17.954794
0.11943024 -0.14318019 -0.58489192 17.576126
1.0087554 -0.20569959 -0.71021348 19.61142
1.2215147 -0.087909661 -0.73789978 17.253222
5.4333167 -0.27301475 -0.5289216 16.466667
5.8046312 -0.18688187 -0.60580856 16.355
-7.3855667 0.18324706 -0.60145807 13.739758
-6.4450264 0.017304946 -0.70920467 13
-0.1848498 0.23490095 -0.57043636 11.952381
0.22304815 0.24671976 -0.60493082 12.416667
0.74889183 0.22085352 -0.69064426 11.166667
0.91877747 0.18740788 -0.61701697 11.796992
1.2310306 0.16422258 -0.62440002 12.333333
5.4229431 0.17427491 -0.79193068 14
5.8049116 0.15975569 -0.58622128 14.055102
-7.4006901 0.57194388 -0.578067 12.176692
-6.4682293 0.40950143 -0.66327477 12
-0.088621415 0.54818732 -0.50721788 7.1666665
0.9931469 0.60524929 -0.6957711 3.8461537
6.2505808 0.78842276 -0.41767883 11
6.4752655 0.76960909 -0.67718744 11
-7.398345 0.99163002 -0.61587882 10.487955
-6.4547596 0.80165416 -0.70190525 11
5.5495067 0.92758036 -0.78870392 10
5.9563265 0.97094315 -0.53693867 11
6.1616244 1.0836229 -0.58142585 8.5
6.5869761 1.0202949 -0.73651409 9.5
7.0141416 0.90682685 -0.54699922 10
7.4190865 1.1439718 -0.64984292 9
-7.4211311 1.3816698 -0.59733522 9.0539207
-6.4880333 1.4583274 -0.59898567 9.333333
6.209662 1.469154 -0.74343157 5.9333329
6.6429415 1.4156423 -0.60209668 7.5
6.9347181 1.2869645 -0.77906942 8
7.3624406 1.381282 -0.55283934 8
7.7081752 1.2994262 -0.51156521 9
-7.4269004 1.7705464 -0.59974504 7.4745102
-6.5094151 1.976989 -0.62005663 8
6.2189012 1.8331957 -0.6299051 5
6.5504775 1.9017068 -0.70936519 4.8333335
7.4170413 1.6543807 -0.58449793 6
7.8679271 1.838189 -0.42666626 8
8.0905905 1.7650661 -0.62306499 7
8.5861244 1.9111105 -0.50694847 7
-7.4439425 2.1896152 -0.63223118 5.8755207
-6.494524 2.377182 -0.68284321 7
5.5388241 2.3005962 -0.47760201 8
5.8431778 2.2362368 -0.66140175 5.6666665
6.1071877 2.0351956 -0.73612928 3.6666667
8.228878 2.1685214 -0.76485205 6
-7.4241362 2.572999 -0.62900954 4.3671875
-6.5099115 2.7788882 -0.71581173 6
5.5207405 2.6194019 -0.43583393 7
5.8530202 2.576756 -0.57420444 5.25
7.097538 2.6831348 -0.47155571 2.5
-7.4317412 2.9363327 -0.57358217 3.1666667
-6.5236044 3.1709585 -0.69153118 5
5.5340424 2.9923868 -0.55006123 4.6666665
5.763979 2.9637341 -0.56637335 3.5
6.781023 2.8933635 -0.47644615 4
7.0816388 3.003113 -0.48402596 1
7.3707609 2.9153831 -0.46424103 1
-7.6406016 3.380585 -0.56926537 0
-7.4966402 3.3551271 -0.54708481 3.8192308
-6.5325775 3.5705361 -0.71457863 4
5.5260448 3.2846532 -0.50232887 5
5.6269264 3.2807286 -0.53895092 1
7.0932317 3.2034423 -0.43933129 1.5
-7.7460823 3.771935 -0.50677681 0.75
-7.4675674 3.7604461 -0.58153421 1.26
-6.5564661 3.9365344 -0.5546689 3
6.4353185 3.6705551 -0.58538818 1
-7.6065063 4.3082376 -0.49509525 0
-7.5265679 4.1904941 -0.66095525 1.4
-6.5573473 4.3637123 -0.75012684 2
-7.6517677 4.7266884 -0.61041307 0.66666669
-7.5581837 4.5269685 -0.69586372 1
11.155663 4.486691 -0.54817152 0
-7.6503325 4.9797783 -0.701931 0
-7.5851488 4.9223752 -0.78018999 2.5
-7.5882077 5.320395 -0.78326321 1
-7.6631017 5.7814312 -0.78330803 1
-7.598165 5.7143359 -0.79149437 0
11.137049 5.7103238 -0.65781116 1
-6.5802841 -1.6253819 -0.14543676 19.2565
-6.1336236 -1.6741213 -0.17091751 21.003332
-7.2735353 -1.328583 -0.33644569 22.25
-6.6270761 -1.3390081 -0.28699017 22.01725
-6.1349015 -1.393317 -0.13911247 23.192312
-5.8179741 -1.4835675 -0.32498038 25.046717
-5.3622875 -1.4177799 -0.17928652 22.347498
-7.694654 -0.88373077 -0.27117443 17.0075
-7.3825879 -0.93128818 -0.26241529 18.636364
-6.9321275 -0.96387827 -0.088287652 18.81155
-6.5740304 -0.94299579 -0.14786546 18.674459
-6.1501737 -1.0226222 -0.09625107 20.685949
-5.2164855 -1.1781888 -0.013319105 24.0245
-5.060667 -1.0519787 -0.042191744 19.760624
-4.1446877 -1.1076343 -0.2042346 23.011499
-3.7344334 -0.97951585 -0.21950679 25.020166
-3.4315574 -0.98672014 -0.25176644 26.472324
-3.0258105 -1.0011576 -0.27413833 25.728434
-2.618562 -0.96266621 -0.20160438 25.704258
-2.2666144 -0.9687171 -0.23706521 26.320438
-1.8634093 -0.97212803 -0.20646718 24.422535
-1.3783401 -1.0006806 -0.2399385 25.010002
-1.0307268 -1.0722049 -0.23782757 23.632767
-0.63629866 -1.0484002 -0.22840005 26.16827
0.23250608 -1.0635571 -0.21401596 21.961599
0.62936354 -1.0320777 -0.20944054 21.432915
1.0438911 -1.0343544 -0.22290309 23.75901
1.3587905 -1.0035539 -0.15479381 26.285917
1.7726964 -1.0608611 -0.13209875 22.413458
2.2729802 -1.031284 -0.18177381 26.929464
2.6295958 -1.0527395 -0.217461 25.523872
3.0378218 -1.0465724 -0.21871805 26.547258
3.4062631 -1.048605 -0.14196384 25.169472
3.8244824 -1.0564802 -0.16366661 24.902853
4.2527261 -1.0663624 -0.25263515 24.2831
4.5676537 -1.0603223 -0.15550628 23.283451
5.0559921 -1.0358448 -0.21132393 22.845291
5.403717 -0.94194764 -0.22584276 21.576958
5.6314721 -0.92195988 -0.22139639 21.166666
-7.7026343 -0.56230581 -0.28280449 16.0075
-7.388608 -0.61783856 -0.21683404 16.836309
-6.4988065 -0.7441498 -0.12801552 15
1.1471179 -0.5552488 -0.19151434 24.038101
1.3556689 -0.54986429 -0.22359794 23.530714
5.4225874 -0.62750828 -0.23679462 18.880953
5.6592522 -0.59357435 -0.1820254 19.181122
-7.4083591 -0.22790994 -0.20759074 15.379168
-6.4581976 -0.36391658 -0.31563854 14
1.0790694 -0.1958608 -0.19903736 18.5
1.4008487 -0.20410608 -0.16086686 18.498917
5.3756833 -0.23377725 -0.2240698 16.307142
5.7326541 -0.19814683 -0.19387443 16.416666
-7.4100308 0.1963658 -0.20477374 13.688775
-6.4860897 0.025262609 -0.17062092 13
0.48878908 0.38843277 -0.10340309 14
1.0613543 0.21210556 -0.10824593 12.055556
1.3780639 0.15878858 -0.14794719 13.035714
5.4383607 0.10677478 -0.19742231 14.266665
5.8042865 0.20216972 -0.19318807 13.770833
-7.4317226 0.59387088 -0.1913349 12.138889
-6.50389 0.60019183 -0.27652597 11.5
1.1526668 0.52905399 -0.19521475 7.3000002
1.2305002 0.61703956 -0.093479514 5.75
5.9168496 0.72487766 -0.24750042 13
6.0088701 0.66912532 -0.30627441 13
-7.681427 0.87470418 -0.35644722 12
-7.4406424 0.99381286 -0.17720637 10.796241
-6.5175123 1.1852893 -0.31798935 10
5.4489822 1.0281467 -0.21521521 10.5
5.7568183 0.87540692 -0.12123533 10
6.0907011 1.1914204 -0.15807819 10
6.5370669 1.0529007 -0.22086771 8.5
6.9222069 0.93344581 -0.24087727 10
7.2327023 1.1991024 -0.025149345 9
-7.4317899 1.3712918 -0.19320306 8.9244442
-6.5323963 1.5705295 -0.27126789 9
5.6505466 1.2751706 -0.075528145 8
6.1773925 1.4894739 -0.092722923 7.25
6.4108481 1.3554479 -0.26002604 6.6666665
7.0858312 1.250652 -0.18229119 9.333333
-7.7449498 1.6854688 -0.08810997 12
-7.4528008 1.7801661 -0.18662065 7.6039214
-6.5438337 1.9506365 -0.29204559 8
5.7096028 1.853424 -0.22158003 5
6.1740556 1.6899071 -0.079946361 6.1111112
7.5765553 1.8335623 -0.18714857 5.5
7.7812986 1.7595325 -0.011646748 7
8.1998739 1.8578657 -0.032896042 6
-7.4552617 2.1635761 -0.21773183 5.9993
-6.5532966 2.3389831 -0.28236485 7
5.9787741 2.0881901 -0.22143602 3.75
7.4758835 2.2518086 -0.21056807 3.25
8.2280464 2.0571685 -0.20742869 6
-7.7259035 2.4655309 -0.23460865 10
-7.4573836 2.583308 -0.15784845 4.3202381
-6.5682812 2.7385848 -0.35724735 6
7.4724741 2.5401545 -0.18685782 1.75
9.0912724 2.5994108 -0.072128296 6
-7.6663179 3.0832434 -0.25272942 6.5
-7.4793715 2.9225924 -0.19415301 3.7107842
-6.5342665 3.1031113 -0.2320137 5
-7.6984844 3.4739909 -0.19378483 2
-7.4770494 3.3717594 -0.16866989 2.7828572
-6.5428495 3.4931586 -0.25393915 4
-7.7306728 3.7528648 -0.24614501 1.5
-7.4746814 3.7528608 -0.14104708 1.986111
6.208477 3.8170843 -0.097341537 1.5
7.0742555 3.7188692 -0.34615898 1
-7.6362653 4.2050748 -0.2342689 1.9375
-7.5661707 4.1434546 -0.21273383 2.5999999
-6.5567474 4.2872257 -0.38946819 2
-7.6225724 4.5810986 -0.14547984 2.3333333
-7.5456862 4.4425569 -0.28474483 1.2
10.705639 4.7565751 -0.37119293 1
-7.6531544 4.8398738 -0.20504737 2
-7.6788502 5.2577052 -0.23952357 1.6666666
-8.1783476 5.8535414 -0.29354239 0
-7.6646132 5.6028018 -0.32855797 0
-6.6965938 -1.710638 0.24473 20.007
-6.3023067 -1.6402957 0.27880526 19.5075
-5.8244548 -1.6087043 0.036066651 26.02475
-6.4636307 -1.37265 0.29722029 22.80195
-6.1949139 -1.3984185 0.16469325 21.640806
-5.8523726 -1.5739777 0.23241962 26.026249
-5.1282096 -1.3348097 0.26522747 19.6735
-7.7193694 -0.85348415 0.27028847 17.007999
-7.3829126 -0.89185572 0.15401793 17.001801
-6.9993067 -0.95842916 0.27048612 18.761623
-6.5741272 -1.0181261 0.25056568 21.091417
-6.1815324 -1.0387881 0.16068195 19.528618
-5.3111844 -1.18462 0.17976427 24.022499
-5.0461555 -1.1365548 0.15520175 24.025
-4.1831589 -1.1518047 0.13753913 24.351
-3.7852402 -1.0550469 0.21769434 24.015751
-3.33864 -0.97665709 0.15555361 24.391375
-2.9635394 -0.95133531 0.1634708 24.116692
-2.5708423 -0.92891693 0.26628795 27.355185
-2.2385693 -0.9353742 0.2162009 28.024469
-1.7685966 -0.9587931 0.2303762 24.169291
-1.3895041 -0.99856055 0.1561565 24.057123
-1.0035771 -1.0960617 0.21271348 22.302288
-0.71472299 -1.1149139 0.20571351 22.001625
-0.27514175 -1.0591694 0.20120303 23.277067
0.28798604 -1.0646236 0.19788007 23.813299
0.64745009 -1.072437 0.14703003 23.31938
0.95872593 -1.0580922 0.19779448 25.211683
1.3549047 -1.0707811 0.18455386 24.278101
1.829406 -1.0309365 0.19806807 24.604252
2.242167 -1.0471753 0.171207 23.611713
2.694524 -1.045369 0.24163601 27.451542
3.0329647 -1.0549177 0.17811723 26.47146
3.454061 -1.0541632 0.17016368 25.124334
3.8363872 -1.0696107 0.19174314 24.075083
4.1330314 -1.0632269 0.21910329 24.681648
4.5510879 -1.0715221 0.18700482 24.414
5.0152621 -0.99778962 0.21117298 22.285889
5.3990626 -0.94381618 0.19918393 21.907494
-7.7278686 -0.54110575 0.25854874 16.007999
-7.4302688 -0.58554155 0.1717125 16.614714
-0.22914648 -0.76597244 0.029735565 16.1005
0.15085478 -0.57979822 0.19439963 22.881006
5.1482277 -0.63596368 0.24511003 18.75
5.4604831 -0.59010029 0.15541482 19.109694
5.6201034 -0.46360806 0.086729549 18.444445
-7.4022098 -0.18621391 0.18212228 15.089395
-6.4997015 -0.35258192 0.013418198 14
-0.10401803 -0.16670136 0.20840764 16.450417
0.19830078 -0.20710401 0.20369153 17.940525
5.3912349 -0.2123803 0.25627813 16.444445
5.6468692 -0.21919051 0.23382719 16.703705
-7.3965402 0.20114847 0.1523744 13.729592
-0.066793799 0.29498458 0.1368084 11.25
0.19723701 0.18298981 0.13816616 12.723214
5.4491286 0.18147482 0.1316545 13.833333
5.7367358 0.16509762 0.16548494 13.919642
-7.4307904 0.60477072 0.18763372 12.015873
-0.0011049807 0.60640627 0.19587469 7
0.10456533 0.54200351 0.17482299 7.875
6.1456323 0.55651265 0.24366586 11.666667
-7.6410866 1.0249521 0.02634573 11
-7.4200935 1.0022875 0.15789127 10.059722
5.4823627 0.99808562 0.22503924 10
5.8334031 1.0199664 0.20102167 9
6.1798854 0.98583174 0.27396083 9
6.7691607 0.88516808 0.2045908 10
7.0097561 0.97223639 0.34357309 10
7.2670183 1.1857884 0.24702454 9
-8.370719 1.5225296 0.010772705 9
-7.6185093 1.4124423 0.13091469 10
-7.4407082 1.3916541 0.14528587 8.3726187
5.4401331 1.2238789 0.092463017 8
6.1886134 1.4322442 0.010738452 7
6.4641843 1.4943197 0.12301397 6
6.999414 1.3285133 0.2753191 11
7.4761963 1.447736 0.12537214 7.5
7.8616128 1.5809126 0.26204407 7
-7.4456754 1.7775298 0.1535982 6.7949491
6.3019834 1.7618029 0.17422308 4.833333
7.4687629 1.8027015 0.20307961 5.375
8.2570934 1.8385973 0.39551589 6
8.4018621 1.9260848 0.12029696 6
-7.6344371 2.1320503 0.26604906 8.333333
-7.44699 2.1890829 0.17391732 5.0551081
5.9136658 2.0421331 0.16690397 6
6.2218261 2.1123536 0.19747448 4.6666665
6.85783 2.3418262 0.33640909 5
7.4166927 2.0866218 0.22756952 3.75
-7.6292267 2.5103552 0.31415367 3.3333333
-7.4670401 2.5902789 0.17324345 2.6825662
6.5093584 2.4929066 0.30121469 2
7.1802878 2.5746117 0.17891902 4
7.2640944 2.6436887 0.1231665 2.5
9.6388359 2.6767089 0.11499524 4
-7.6589003 3.0686924 0.16229415 5.5
-7.4790344 2.9734564 0.15422194 3.0462964
7.3225632 3.0894318 0.062184811 4
8.3948011 2.9104836 0.26325607 2.5
-7.7666092 3.4359257 0.1358217 1
-7.4850378 3.3954363 0.17709009 1.8888888
6.8113823 3.4271331 0.021450996 4
7.3001733 3.4268994 0.089010715 2.75
8.3393574 3.3829765 0.28244781 0.5
-7.7546659 3.6321466 0.27090979 0
-7.4698944 3.7750974 0.174557 1.8571428
5.7322197 3.7548065 0.39732361 5
6.1520576 3.7042007 0.10895443 7
6.6737828 3.7173047 0.30953503 0
7.1070223 3.6703813 0.10817385 2
7.3621106 3.7807746 0.11163044 3
-7.436182 4.1541152 0.17035516 0.66666669
7.2867341 4.2019343 0.25773811 1.5
-7.431994 4.4151797 0.018935204 0
11.894316 4.5860643 0.26803017 1
11.727503 5.5808725 0.259799 1
-6.5760059 -1.6517972 0.55340803 19.633125
-6.3221269 -1.6829869 0.61233956 23.337418
-6.4833446 -1.3895102 0.58941489 21.952557
-6.2453103 -1.3329952 0.68427801 19.509501
-5.900003 -1.5919058 0.50616169 26.027
-5.3967204 -1.3594885 0.64276648 21.762249
-5.12605 -1.3221232 0.67561293 24.014999
-7.7723207 -0.91030586 0.65948486 17.007999
-7.4005585 -0.9261952 0.61593068 17.377844
-7.0334563 -0.9228403 0.62682933 18.81085
-6.591083 -1.0253605 0.55194038 20.593834
-6.2447414 -1.0074356 0.57504225 19.707067
-5.1133904 -1.0645257 0.43948841 21.684
-4.1825929 -1.1239606 0.6269986 25.6915
-3.7229862 -1.0045617 0.55026007 24.519688
-3.5791872 -0.96596295 0.48610827 26.025499
-2.9444082 -0.92413366 0.58850664 23.242634
-2.6196594 -0.91534042 0.54017657 27.911114
-2.2068284 -0.93411839 0.61456704 26.500261
-1.7938522 -0.96005827 0.58329743 24.77854
-1.3898978 -1.0559742 0.61910373 22.844784
-0.9949038 -1.0863879 0.50253808 24.169813
-0.60209304 -1.0918003 0.57687658 24.334833
-0.34395888 -1.0272226 0.55947065 30.00075
0.27780291 -1.0601153 0.72400117 25.10025
0.60530728 -1.0727609 0.60140669 24.999649
1.0286394 -1.0482357 0.6421212 26.652649
1.3979253 -1.0506756 0.54209757 25.629374
1.8022531 -1.0372273 0.66363764 26.09075
2.243355 -1.0415154 0.67787123 26.409628
2.634757 -1.0360565 0.59367234 28.844015
2.9850733 -1.0503246 0.59091997 26.858141
3.3759148 -1.0537739 0.56276357 26.331429
3.798717 -1.081166 0.63708973 24.770992
4.232893 -1.0701245 0.57075405 23.973001
4.560678 -1.0727614 0.60343319 24.27985
5.008481 -1.0001669 0.63967526 22.539852
5.3464026 -0.95292246 0.59398997 22.203077
-7.7942257 -0.53556585 0.63486004 16.007999
-7.4525661 -0.61375576 0.57395703 16.802834
0.64723539 -0.73424953 0.60093689 16.1
1.3766294 -0.54481483 0.48040667 20.053667
1.6794209 -0.59316319 0.72396827 23.643456
5.1215715 -0.55812943 0.69123983 18.5
5.4642372 -0.57340348 0.58706665 19.15625
-7.4519863 -0.23963501 0.61155993 15.66515
1.3727779 -0.21615086 0.51500964 18.205196
1.7052364 -0.24177909 0.67129868 18.5683
5.179153 -0.23827612 0.68811893 16.5
5.5140719 -0.21847221 0.63116485 16.672619
-7.4223013 0.17996778 0.59093541 13.626389
1.4032679 0.1634247 0.52198875 12.828572
1.780742 0.17020983 0.6098085 12.787879
5.4645109 0.15560204 0.64893305 14.043333
5.641984 0.17648973 0.57852709 13.966667
-7.4499788 0.60025477 0.57994771 11.851282
-0.054395199 0.42049038 0.60994339 14
0.66908026 0.41638508 0.56688118 14
1.5314773 0.51203483 0.58136338 7.9166665
1.627808 0.60227138 0.65387225 6.5999999
5.7822666 0.47320452 0.54454136 12
6.0485697 0.48903215 0.59058928 12
-7.4383006 0.98526239 0.58136386 10.055555
5.3729773 1.1728278 0.47955322 8
5.8086095 1.0424256 0.61817873 9.8888893
6.1784806 0.93181401 0.67745942 10
6.6961513 0.87037122 0.67146814 10
6.9468441 0.88425493 0.58531058 10
-7.6632895 1.4703454 0.47701725 9.333333
-7.4615555 1.3435972 0.64786541 8.0083332
5.4821825 1.5029162 0.65787029 6
5.8393784 1.3161623 0.58707792 6.5
6.3178263 1.3411225 0.59268188 9
7.1000853 1.4126775 0.55826175 7
7.4680634 1.3569636 0.55353761 8
7.7574239 1.4525162 0.59437591 8.333333
-7.6655526 1.8032707 0.67989999 8.666667
-7.5356212 1.7854214 0.55025578 6.2615385
6.2720428 1.7362639 0.52411634 4
7.741488 1.843195 0.53822231 6
-7.6481762 2.1853864 0.75569725 5.6666665
-7.5155864 2.1873648 0.59064257 4.8044443
6.2548466 2.3422174 0.63468802 0
7.8938494 2.3766296 0.73666203 3
8.3430548 2.241363 0.63115919 4.4333334
8.4589796 2.1117303 0.59340179 5
-7.6632919 2.5598271 0.50273925 5.5555558
-7.5623236 2.5997093 0.61362213 2.1964285
6.2549133 2.4852006 0.64264965 4
6.9085045 2.4137869 0.58070725 1
7.8512115 2.7780685 0.5028553 4
8.2694788 2.5645471 0.59273136 2.6333334
-7.6088362 3.1907663 0.78645229 3
-7.5060391 2.8758881 0.62725425 1.1388888
7.7670479 3.0672822 0.73936367 5
8.2351141 2.9876544 0.6275326 0.5
-7.7984886 3.4477823 0.65664005 0.66666669
-7.4939651 3.4261448 0.58881682 0.66666669
7.1937027 3.4730487 0.73592663 4
7.4297338 3.3657119 0.67959404 5
-7.4154396 3.7655678 0.53740644 0
8.0031528 4.2123537 0.52355385 7
11.256632 4.6269398 0.71346474 0
-6.4568629 -1.6519107 1.0389603 23.253313
-6.1999216 -1.6900967 0.98325777 23.886406
-5.9799871 -1.6142551 0.80554032 26.0245
-6.4960938 -1.4275703 0.98960924 21.377081
-6.3560586 -1.3859748 0.92006445 18.875626
-5.5015855 -1.3732846 1.0877299 22.012749
-5.1385326 -1.4598188 0.96850777 21.009001
-7.4346161 -0.92538851 1.0564463 17.503826
-6.926373 -0.95398104 0.96436995 19.521
-6.5834751 -1.0076678 0.98714733 19.919313
-6.243042 -1.0482157 0.99394596 20.222107
-5.5281925 -1.063615 0.90970516 22.016001
-4.1878934 -1.17637 1.0985758 23.011999
-3.832402 -1.0564939 0.95210356 25.357168
-3.3918998 -0.98040104 0.97244364 23.518433
-2.9592655 -0.91676235 0.94499189 25.148939
-2.5794213 -0.93264467 0.95997846 24.995497
-2.2163212 -0.92762381 0.95527047 27.040255
-1.9553125 -0.87669945 1.0594478 29.752584
-1.4087812 -1.0389308 1.0254915 22.859404
-0.95448363 -1.0747608 0.97776973 25.167713
-0.57280815 -1.0922817 1.0304829 22.334833
-0.18475892 -1.0991151 0.93451256 22.684082
0.29100797 -1.0927942 0.96003228 22.844862
0.60986686 -1.0969714 0.97803211 21.917292
1.0316299 -1.0853574 0.96031755 21.585501
1.4253803 -1.0592337 0.92312276 21.869722
1.7523575 -1.0108066 0.98812568 27.502031
2.1511016 -1.0319172 1.0678809 27.514847
2.6017528 -1.0418452 1.0531158 27.699341
2.9703782 -1.0444466 1.0145435 26.989634
3.3876915 -1.0540758 0.98333156 25.629635
3.8297508 -1.053689 1.0103611 25.4806
4.2014923 -1.0663567 1.0205672 25.477551
4.6135573 -1.0525378 1.0021333 23.511106
5.0165715 -0.9998005 0.97287124 22.819063
5.3369598 -0.94424117 0.93603802 22.368214
-7.4649715 -0.60611796 0.98038763 16.869539
0.11970359 -0.52777803 1.1477642 21.333334
1.1123545 -0.53114605 1.1749344 16
5.083179 -0.65501797 0.91520858 19.25
5.4101195 -0.64671832 0.92690939 19.885714
-7.4805837 -0.25094357 1.0308574 15.482074
-0.70507383 -0.060610145 0.87365913 15
0.14856605 -0.24217048 1.1886324 17.875
5.1648555 -0.25028095 1.0172949 16.666666
5.4819837 -0.23233147 1.0138749 16.85
-7.6732769 0.32423997 0.86559677 13
-7.4471192 0.15491514 1.0223472 13.773334
0.18591586 0.20789166 1.1396267 12.3
5.4762535 0.15059771 0.99416828 14.097322
5.6394839 0.25371242 0.93303478 13.291666
-7.4580641 0.60080373 0.97256476 11.764584
5.8854504 0.54617298 1.0554901 12.25
6.0196133 0.65392846 1.1270285 11
-7.6331024 1.1668813 1.0374584 12
-7.4594536 1.0233248 0.98717439 9.6333332
5.8278179 1.0608317 0.99756312 9.5
6.1594257 0.94663465 1.0758014 10.8
6.6827898 0.81039125 1.0570488 10
7.3911138 1.1282291 0.96955693 9
-7.483273 1.4158635 1.0132098 7.9277778
5.5508385 1.3928152 1.0115913 8.333333
5.8046207 1.3162532 0.98212057 6.5
6.1158357 1.263239 1.0418553 7.3333335
7.4304113 1.3755492 1.051759 8.5
7.7666645 1.5478449 1.1584697 8
-9.6966944 1.6409651 0.88427538 8
-7.6550989 1.7191548 0.99275649 8.1875
-7.5507522 1.775642 0.96244413 6.0466666
6.1129851 1.6215606 1.1902945 5
7.0360317 1.8059788 1.0537888 5
7.4388156 1.6308849 0.85299206 7
7.9239349 1.7902521 0.9616214 6
-7.6862164 2.2049193 0.98882419 6.7111111
-7.5387816 2.1423528 0.96313518 4.521111
5.6979532 2.3177495 1.0015435 1
6.0387979 2.0684783 1.0001721 3
6.4913793 2.2078905 1.1187778 3
8.5073786 2.1292965 0.90371692 5
-7.6369863 2.598485 0.97622007 3.9913421
-7.538198 2.5977798 0.97152275 2.4666667
6.2258797 2.6277733 1.0266082 0.5
8.2112465 2.4433091 1.168853 3
9.5540485 2.6221008 0.99917972 4
-7.6335459 3.1426148 0.9560895 2
-7.5372057 2.8881888 1.0377176 1.125
-7.6428542 3.283649 1.0322433 2.5357141
-7.5772319 3.4105239 0.97008985 1.5714285
-7.6704955 3.675581 1.0346985 3.25
-7.5683436 3.7322426 1.0291868 0.625
-6.5029087 -1.6732985 1.3159412 23.505667
-6.1206894 -1.6501533 1.3626051 26.025999
-6.4705567 -1.3849335 1.3505181 21.669292
-6.3866358 -1.4484351 1.3064148 22
-5.3108559 -1.2997725 1.4159305 21.764723
-7.722795 -0.98398465 1.3417078 16.3375
-7.468751 -0.86927116 1.4301229 17.501875
-6.8946981 -0.88672578 1.3313758 19.813398
-6.5649447 -1.0342637 1.4087305 19.426907
-6.2843475 -1.045772 1.3713804 19.987766
-5.2727289 -1.1177599 1.393883 22.354
-5.1804638 -1.0035858 1.3293458 23.025999
-4.1717157 -1.1424613 1.4161363 22.011
-3.8310988 -1.0699551 1.4292284 24.876928
-3.3419914 -0.99199134 1.3027469 23.517916
-3.0145981 -0.9436031 1.3705157 23.886267
-2.6081073 -0.91527301 1.3449525 26.284224
-2.213068 -0.88102859 1.360801 28.191032
-1.823971 -0.91671824 1.4213433 26.024677
-1.3927828 -1.0416569 1.443873 22.444641
-1.0192587 -1.0883012 1.4342127 22.502312
-0.60542572 -1.0940647 1.3385285 21.421101
-0.18841499 -1.0189271 1.3544633 26.446957
0.18312487 -1.0450264 1.3446714 21.800375
0.52072728 -1.0642796 1.3835087 24.046467
1.0196571 -1.0281701 1.3721181 24.435133
1.3634535 -1.0750443 1.3638996 21.507147
1.6740022 -1.0493538 1.4375499 21.048126
2.1330791 -1.0512981 1.4531219 25.109739
2.6182246 -1.0514613 1.4030451 26.441477
2.996732 -1.0450532 1.4192421 27.365444
3.3693681 -1.0516894 1.4004569 25.940599
3.8031154 -1.057995 1.4125839 25.621666
4.1916094 -1.0639851 1.3807396 24.680149
4.5940828 -1.0618422 1.4506731 24.233398
5.0012798 -0.97533512 1.3440373 22.657022
5.2898312 -0.92498291 1.398417 22.277779
-7.7891903 -0.64602977 1.3221169 16.005749
-7.4869204 -0.61685038 1.3815409 17.321428
-6.7467875 -0.66781455 1.3361139 15
-6.2540283 -0.74216998 1.4393911 19
0.050290871 -0.65100521 1.2386844 23.058701
0.72153425 -0.57338476 1.5563259 16
1.0471482 -0.59346253 1.5070448 22.285715
1.2093358 -0.77483529 1.5279324 25.5
5.0947523 -0.59176195 1.2920673 19.071499
5.345191 -0.60147256 1.3631103 19.625853
-7.4893827 -0.24056995 1.4042121 15.480952
-6.7145672 -0.30599594 1.3693695 14
-0.75083923 -0.041222751 1.5985699 15
0.060873851 -0.21367298 1.2499858 17.627617
1.0003196 -0.018478647 1.3190365 15
1.4425054 -0.012189806 1.2886868 15
5.1465096 -0.23415869 1.372632 16.666668
5.4645233 -0.25485602 1.393874 17.038095
-7.4842448 0.20361207 1.4137698 13.716667
-6.7228231 0.050438471 1.3504696 13
0.96075517 0.12795362 1.5603412 13.25
5.4300432 0.17347276 1.3466121 13.95102
-7.4836855 0.58311576 1.3783554 11.955
-0.01923725 0.54656321 1.2152497 8
0.013283193 0.48361653 1.203289 8.8000002
5.878901 0.5522483 1.3643997 12.5
6.0171375 0.61921501 1.2442417 13
-7.6214662 1.1661617 1.5935278 12
-7.4944601 1.0459743 1.3777069 9.5599995
5.8114834 1.0478058 1.4466702 8.5
6.1606936 0.9748199 1.3138293 8.666667
6.4277544 0.86828214 1.2176704 10
6.8894787 0.87683827 1.406595 10
7.373682 1.1107371 1.3152709 9
-7.6667085 1.4867646 1.3993256 9.1999998
-7.5130186 1.3793368 1.4275486 8.1488886
5.4029889 1.2228383 1.5308204 7
5.8330202 1.4621538 1.3970915 6.6999998
6.1387811 1.2539086 1.311119 8
7.550786 1.328058 1.4722645 8
7.7417712 1.544984 1.5069225 7
-7.6587701 1.7722208 1.4577186 7.6000004
-7.578114 1.7821304 1.3701707 6.1358972
5.4272618 1.9918157 1.4918227 2
6.3489885 1.8018454 1.5170383 4
6.7881207 1.8451985 1.279285 5
7.4218078 1.6409183 1.4782329 8
-7.666893 2.2010839 1.4381059 5.3416662
-7.5285053 2.1397433 1.3434002 4.5128207
5.7868662 2.2655287 1.5315523 7
7.3199463 2.1620655 1.2123876 4
7.9158726 2.3588376 1.448716 3
-7.6487164 2.5719824 1.3847406 3.8277779
-7.492938 2.7095189 1.3426064 2.8
5.813693 2.4380326 1.4765029 4.5
6.7148271 2.556529 1.3903952 3
6.967608 2.5818782 1.2606084 1.5
8.0238104 2.6727047 1.2822485 5
9.4225807 2.5721388 1.3440821 4
9.6637449 2.6372833 1.4750822 4
-7.6781354 3.0437868 1.3676702 0.33333334
-7.524529 2.8155453 1.4044126 0
6.7309132 2.875905 1.504164 1
-7.6990619 3.4101355 1.4198389 1.4722223
-7.5942211 3.4028459 1.2437572 2.5
-7.6370621 3.800812 1.4579448 1.375
-7.5752635 3.7505631 1.4039261 0.5
-8.0193682 4.256701 1.3930092 0
11.013788 5.5275521 1.2645159 0
-7.1284971 -1.6872506 1.6802516 22.0145
-6.4864011 -1.6383445 1.7586198 23.637409
-6.2713561 -1.6560701 1.8122762 25.527687
-6.9767294 -1.4756707 1.7220509 20.01125
-6.5162325 -1.4133275 1.834341 21.984816
-6.3774366 -1.2647228 1.8041546 20.005749
-5.6641302 -1.3860676 1.749474 21.0105
-5.4550571 -1.3919158 1.7487516 21.847624
-7.51897 -0.89795846 1.8160383 17.618385
-6.9534001 -1.0112801 1.7593911 18.845978
-6.5750427 -1.0449698 1.7718192 19.969374
-6.2942376 -1.0264627 1.8139192 19.934536
-5.4419541 -1.1072167 1.687691 23.0305
-4.0251737 -1.0866866 1.965325 25.033001
-3.9970608 -1.0847566 1.6385566 26.023001
-3.3315053 -0.9302575 1.8208513 24.021187
-3.0373862 -0.93899524 1.7076484 24.191692
-2.6030154 -0.90174288 1.7427247 25.907671
-2.2383945 -0.88363117 1.7856284 28.08153
-1.7980506 -0.922405 1.7950176 25.293404
-1.419744 -0.97999638 1.8299438 23.526564
-1.0411625 -1.0829383 1.9412125 26.004667
-0.63199639 -1.0859404 1.8495151 25.05821
-0.21416922 -1.0886489 1.7527112 25.445917
0.24640182 -1.0621519 1.8032358 22.538124
0.6271432 -1.0654527 1.7900484 22.867788
0.97836864 -1.0641543 1.8614031 25.3885
1.3948286 -1.0126972 1.8552371 26.542847
1.801334 -1.0456961 1.8217127 25.189299
2.1861098 -1.0411749 1.8305025 28.392324
2.6485574 -1.0382735 1.7901376 29.573433
3.0263548 -1.0447228 1.7731462 27.914778
3.3990853 -1.0584663 1.797032 26.0909
3.7910745 -1.0512153 1.8171873 25.949215
4.1136832 -1.0631551 1.7823468 25.623924
4.6089935 -1.0577028 1.8298565 24.44693
5.0061064 -1.0062979 1.7041588 23.319305
5.2720261 -0.901245 1.7958164 22.1
-7.5451965 -0.61226982 1.7760309 17.193209
-6.4359999 -0.72970188 1.9436635 19
-6.3456225 -0.73786956 1.652236 19
-1.4449277 -0.7961899 1.6653874 26
0.97213292 -0.42509502 1.6040406 21.0965
1.3006104 -0.57103664 1.7058849 23.230162
5.1953554 -0.6728791 1.6949303 20.200001
5.3568769 -0.62934214 1.7759714 19.928572
-7.6430054 -0.1732346 1.828302 15.5
-7.5343971 -0.21945933 1.7993505 15.471428
0.323277 -0.045817614 1.7071667 15
0.64857912 -0.046994328 1.6821232 15
0.93954843 -0.22936305 1.6437566 18.371326
1.3532593 -0.22169626 1.7073786 18.266666
5.1616697 -0.12085887 1.6242797 16.084999
5.3851624 -0.21667801 1.8065861 16.808165
-7.6491756 0.24751408 1.9632626 14
-7.5080233 0.17485884 1.8393235 13.785714
-0.1575107 0.31066224 1.9962003 11.5
1.1052892 0.14475217 1.6596656 13
1.3623084 0.20074536 1.7375078 12.188889
